x,y,z
0.0036048882256049,-0.0030677713880059,-0.0170777397011483
0.0034734605599687,-0.0027624366126685,-0.0170734065799315
0.0035115853511156,-0.0025586011356821,-0.0173362418959184
0.0031646358678152,-0.0010583810882182,-0.0174502153736079
0.0032935096520151,-0.0019345268783596,-0.0172940589811099
0.0034132447271714,-0.0020408395752387,-0.0175816415956241
0.00330425255959,-0.001718894657727,-0.0175487631000552
0.0031589771831585,-0.0015054067344995,-0.0169989152806547
0.0032168486013918,-0.001608303315304,-0.017266328871199
0.0032203839703796,-0.0013908834457479,-0.0175043088995056
0.0031688603675501,-0.0012896761971927,-0.0172646550988031
0.0050333302860463,-0.0073375604566154,-0.01506616888456
0.004092813493231,-0.0075857436441319,-0.0143053012696775
0.0043803494904106,-0.0077506801050695,-0.0143891703138081
0.0041674859365121,-0.0078779704867759,-0.0141529778033946
0.0045154265915737,-0.0073313140931225,-0.0147767978183016
0.0048136511594123,-0.0074802957091237,-0.0148455566127997
0.0045958745772906,-0.0076180775958984,-0.0146199656537482
0.004302525670416,-0.0074602474086664,-0.0145441539613646
0.0042265417531596,-0.0071690959703911,-0.0146992990102595
0.004730574481697,-0.0071941592241341,-0.0150066323650962
0.0048583629646741,-0.0067697775968974,-0.0153929833650623
0.0046478821174576,-0.0069078617184172,-0.0151676628494784
0.0044363669825197,-0.0070406411580038,-0.0149364276228761
0.0043553189681277,-0.0067500113256957,-0.0150923562346321
0.0041496037597293,-0.0068752060472389,-0.0148526457043849
0.0048758319805287,-0.0060807578982605,-0.0159230788172116
0.0049844599502116,-0.0063597588802543,-0.0157717173529092
0.004773083800913,-0.0064880977417614,-0.0155545309569897
0.0045608268103004,-0.0066209893348077,-0.0153245600930151
0.0032061630808071,-0.0064039362754668,-0.0142353717350556
0.0031626393121389,-0.006092368279052,-0.0143575419025851
0.0033780887271791,-0.0063067497574456,-0.0145082584676643
0.0030055123743238,-0.0061918808271401,-0.0140709934619478
0.0033270759456208,-0.0059979488248425,-0.0146348182482877
0.0034331206816885,-0.0066134708085734,-0.0143770512403016
0.0036171599028994,-0.0065086817882594,-0.0146402801116195
0.0034914697260511,-0.0069182047550894,-0.0142411911349645
0.0040191427127996,-0.0072921255159009,-0.014456817812704
0.0035524764562336,-0.0072211744377105,-0.0141007647489592
0.0037476680611976,-0.0071110397129991,-0.0143568547253449
0.0038156405611846,-0.0074097557660014,-0.014209513662494
0.0038858945202192,-0.0077071572904579,-0.0140599388537444
0.0035558447518698,-0.0062049793233377,-0.0147757603175685
0.0034911593178614,-0.0058939638713924,-0.0149024197470195
0.0037350177528404,-0.0060888437501634,-0.0150405343941715
0.003681280000692,-0.006810648511698,-0.014500565771267
0.0039469109993115,-0.0069955689779249,-0.014607551350943
0.0038756341262049,-0.0066980701418775,-0.0147546032258155
0.0038060758135895,-0.0063992054375185,-0.0148980063139437
0.0040737315348002,-0.0065806481582411,-0.0150030167338296
0.0039917862724942,-0.0062878608252254,-0.0151417429080123
0.0042740794873934,-0.0064599420983388,-0.0152441855448377
0.0018013421731382,-0.0085880166424903,-0.0104672670249213
0.0019953823545023,-0.0083805943836392,-0.0110982954178927
0.0021720543122836,-0.008945982766999,-0.0111626835042847
0.0021420804773386,-0.0086285703873137,-0.0112976432700311
0.002116903823604,-0.0083038540939488,-0.0114192302107338
0.0020070479965675,-0.0086803342694759,-0.0109788475269086
0.0021104894986993,-0.007139284978588,-0.0117896556968678
0.0022243702742471,-0.0073232955809343,-0.0120717963135132
0.0020585760313274,-0.0073986743095419,-0.0115844759379784
0.0021427774718229,-0.0074456121124148,-0.01182187199942
0.0035570897660945,-0.0032662312627212,-0.0168253021806556
0.0037556209777014,-0.003367769756988,-0.0170687686720302
0.003697439830149,-0.0035691211376412,-0.0168126184054495
0.0036355646584886,-0.0037715707280441,-0.0165546962847324
0.0034455085617493,-0.0036617516108334,-0.0163096456214102
0.0035024359514509,-0.003464951220299,-0.0165656735319503
0.002974265931356,-0.0058781564717924,-0.0141811262206489
0.0028311623128004,-0.0056833713523653,-0.0140062946998831
0.0026970129897645,-0.0054919244389446,-0.01377542104387
0.0027990645555831,-0.0054313186069125,-0.0140359761218662
0.0026774858604565,-0.0060428756602271,-0.0135480072350947
0.0026965500016285,-0.0057305331961542,-0.0136997992238528
0.002591785280159,-0.0057965925772968,-0.0134266414950125
0.0028333615447919,-0.0059715034564026,-0.0138871636032915
0.0030409852588233,-0.0064968258468038,-0.0139574195295519
0.0027356189523666,-0.0066794197912124,-0.0133857349346521
0.0029147116069509,-0.0068989259861648,-0.0135524192597902
0.0029409034593332,-0.0043687565801719,-0.0147598824543605
0.0031787640959133,-0.0043807988780813,-0.0153190219741743
0.0030241996238236,-0.0041952035843445,-0.0150499478041042
0.0030798374206974,-0.0045179671278243,-0.0150375262225912
0.0037125719867925,-0.0049860184684458,-0.0157665071619619
0.0034837345133875,-0.0048992151155499,-0.0155265681744135
0.0036357725000165,-0.0044970455204995,-0.0160128524513194
0.0037910807692967,-0.0047851365940185,-0.0160024266034031
0.0041265785542347,-0.0046420257373915,-0.0164690943561651
0.0030676168621545,-0.0049230018615474,-0.0148164464903591
0.0029912090166638,-0.0046746741704622,-0.0147669284641308
0.003251100751412,-0.0047509526966966,-0.015250057092121
0.0031104615646043,-0.0047794676094549,-0.0149723818148122
0.00342860968559,-0.005112791522362,-0.0153122825262362
0.0032213289565919,-0.005056441335531,-0.0150262176295592
0.0032379321903172,-0.0053685878323058,-0.0148773590317569
0.0030932806974121,-0.0054596634632914,-0.0145939700216164
0.0032759034429671,-0.0056769573398032,-0.0147562309210756
0.0031264529847572,-0.0057761196529299,-0.0144797638514068
0.003591289508281,-0.0054524067420787,-0.0153064220991536
0.0034307503648031,-0.005586900177505,-0.0150202949362468
0.0033738810418039,-0.005327491571057,-0.0151025000025415
0.0044674720429461,-0.0063333744006947,-0.0154745816611118
0.0046834281505324,-0.0061995655569648,-0.0157162480452225
0.0041835881070942,-0.0061669434607737,-0.0153864116218993
0.0045806436665551,-0.0059000697746915,-0.0158743681441009
0.0046346375172897,-0.0056493284775455,-0.0161010051846333
0.0043466661890672,-0.00560300000753,-0.0159274341953865
0.0043797163363093,-0.006046141957767,-0.0156240461438189
0.0042882067207572,-0.0058169095801251,-0.0157234837862503
0.0036644906364969,-0.0057797342266018,-0.0151740092771569
0.0038384517530252,-0.0056912870039369,-0.0154157413187363
0.0039136593133669,-0.0059931398879475,-0.0152784898007548
0.0041147121807273,-0.0058921770448333,-0.0155277303520303
0.0040489202460096,-0.005583828766449,-0.0156918696141818
0.0035639110863876,-0.0046992244922208,-0.0157723872637738
0.0027499466340798,-0.0083211326803847,-0.012474487086474
0.0026300792821429,-0.008713310106076,-0.012052001029231
0.002581476879535,-0.0084038126118504,-0.0121862808589067
0.002800231036403,-0.0086262502877202,-0.0123361925263847
0.0028716362706747,-0.0079236249296768,-0.0128873605846006
0.0035444864440329,-0.0023555016340179,-0.0176010588105194
0.0081550559360732,-0.0122372749255111,0.0234298250701357
0.0082489812066458,-0.0122723925466665,0.0232245770521118
0.0083399396648909,-0.0119676172197182,0.0233424252812651
0.0081071040111662,-0.0124802957480682,0.0232768563328975
0.0082714912317977,-0.0124234585126321,0.0230337247727374
0.0083823308538747,-0.0121668998303969,0.023070325392739
0.0079578139542224,-0.0125003804869973,0.0235098431583504
0.0086108849311709,-0.0130723913001189,0.0216505840454337
0.0085668831359918,-0.0128976917783949,0.0219388642262826
0.0084250373889643,-0.0132071383066923,0.0219034626343158
0.0077475309453921,-0.0127558254645862,0.0235809450173814
0.0079243633308566,-0.0127696921269225,0.0232923657675519
0.008427700137069,-0.0123574674674419,0.0227925125778927
0.0081217804087672,-0.0127173581293304,0.0230110438392735
0.0079211183741706,-0.0130646423569558,0.0229882226246365
0.0082935251653485,-0.0126333421577005,0.0227797069422849
0.008474533193054,-0.01254138910311,0.0225104874021838
0.0081377434636386,-0.0129541196453103,0.0227347255061784
0.0083283703744441,-0.0128428131115725,0.0224939427972921
0.0085213494744364,-0.0127208258967543,0.0222255808875455
0.0083793415718429,-0.0130302718039061,0.022191582571796
0.0075236497932477,-0.0130022606546765,0.0236414975097902
0.007719655911042,-0.0130133447228143,0.0233551526784674
0.0072859644779039,-0.0132382086544037,0.0236899641734637
0.0074834743997828,-0.0132626082205236,0.0234179774657565
0.0072499171958165,-0.0134874291655226,0.023461982483848
0.0076692158055568,-0.0132857442602896,0.0231366711678465
0.0077943381826068,-0.0133462414388218,0.0228831614027169
0.0079767135460563,-0.0132576804595465,0.0226866931583201
0.0082276216342239,-0.0133348846816832,0.022152155292452
0.0081807415017253,-0.0131456594482188,0.0224497052701325
0.0080183438540603,-0.0134557320519502,0.0223947529644007
0.0080662223171417,-0.0136341929454229,0.0221063456555452
0.007844126102774,-0.0137537190046735,0.0223419922226356
0.0084692843967825,-0.0133817171129626,0.0216133451606297
0.0082736696321858,-0.0135117186878756,0.0218621892304356
0.0083179298346659,-0.013686522133782,0.0215703215282791
0.0081122763697445,-0.0138111500897853,0.0218151560512494
0.0086535480178598,-0.0132446592536017,0.0213606451112729
0.0076251676121221,-0.0135301300249836,0.0229294048073305
0.0077927063450703,-0.0135688596692578,0.0226361536319804
0.0074452758812171,-0.013512174999,0.0231942895060932
0.0071999709426895,-0.0137468757581594,0.0232298061145443
0.0075759163670952,-0.0137392880751611,0.0227610671923098
0.0073969889641858,-0.0137589450811828,0.0229778043066611
0.0073925703073988,-0.0139906672356889,0.0227140641737001
0.0070348011234059,-0.0134622403498501,0.0237251369346217
0.0067707278406494,-0.0136728145101912,0.0237458522193526
0.0069966647785891,-0.013707757585011,0.0234931801781718
0.0069571018038509,-0.0139496286905067,0.0232584730349818
0.0076506288028555,-0.0138559106134073,0.0225186238645936
0.0076769017055957,-0.0140416414392665,0.0222591048116905
0.0075090842377997,-0.0140854954543876,0.0224464560163765
0.007706135248069,-0.0142259002003377,0.0219902325020275
0.0074724812404105,-0.0143122284015697,0.0222201228213866
0.0078864057996181,-0.0139417824246963,0.0220506658397804
0.0085121635478243,-0.0135538804370358,0.0213212694238911
0.0083611251302753,-0.0138587344329138,0.0212758484779251
0.0086950643426728,-0.0134142320851156,0.0210689561548816
0.0087356051488574,-0.0135808652425799,0.0207754414019462
0.0085539987426499,-0.0137232279178755,0.0210270719993386
0.008814053507264,-0.0139047598318457,0.0201828478576825
0.0087752513728663,-0.0137444122243375,0.0204800751312764
0.0086348276316275,-0.0140527660171871,0.020432649680519
0.00885203526322,-0.0140618216617887,0.0198837664584839
0.0086738282576308,-0.01421278821108,0.0201325443100393
0.0084848312297506,-0.014357105942845,0.0203794043563335
0.0085241731989869,-0.0145167505007967,0.0200764455729691
0.0084034263505706,-0.0140278623809018,0.0209790760968471
0.0081567797283894,-0.0139864008351476,0.0215209562765156
0.0082005218978149,-0.014158665549433,0.0212238593885756
0.0082432932640116,-0.0143276982353837,0.0209246257633615
0.0079856871377393,-0.0142807900128704,0.0214645200074426
0.0079406609738917,-0.0141050380984263,0.021761455631874
0.0080300481949391,-0.0144530222718521,0.0211650039343833
0.0077500558814403,-0.0143911995364625,0.0217153661380972
0.0078057200061451,-0.0145600016747143,0.0214095938892952
0.0084446996614145,-0.0141940348484665,0.0206801395064642
0.008284656775611,-0.0144939132196008,0.0206235620423098
0.0085948536118993,-0.0138895993054148,0.0207308561704723
0.0088892282533418,-0.0142154998169721,0.019582833585155
0.0087119546123846,-0.0143694845115285,0.0198304888663939
0.0071721745322166,-0.0139821901814571,0.0229908100778789
0.0071286153950407,-0.0142096764353434,0.0227708915448953
0.0073168596362626,-0.0142411629121475,0.0225099794658355
0.0064945426968668,-0.0138682532232692,0.0237509535781819
0.006730927028128,-0.0139143557937859,0.0235099512655483
0.0069161880705156,-0.0141876685339301,0.02302112286967
0.0068609393585454,-0.0144296650538003,0.0227841868846044
0.0062075676437134,-0.0140471807650703,0.0237395745470197
0.0064533561973385,-0.0141057528899509,0.0235111103691236
0.0066899313058022,-0.0141520365763796,0.0232712851905662
0.0066478939808125,-0.0143857976772413,0.0230297399030149
0.0066052157782644,-0.0146152731162155,0.0227854587567073
0.0064113087877996,-0.0143392669635513,0.0232684234730059
0.0061655351736538,-0.0142807192950732,0.0234958940481342
0.0061229640964872,-0.0145102429739906,0.0232492780086002
0.0070681858798277,-0.0144497404877445,0.0225457835017565
0.0072493351716904,-0.0144429976383209,0.0223448963585359
0.0075717535965452,-0.0146642958686906,0.0216333763211911
0.0074852440439779,-0.0145206779819974,0.0219411329012344
0.0073011304446106,-0.014535678122365,0.0221647308248851
0.007229848664067,-0.0147363996833963,0.0219962235762056
0.0073645179858273,-0.0147718306636287,0.0217794460851391
0.0070696679195356,-0.0146584402139989,0.0222827857868872
0.0068318490821932,-0.0146532899266039,0.0225355117308569
0.0065586775633512,-0.0148473977834188,0.0225324094832822
0.006785372237421,-0.0148782873151379,0.0222934170692665
0.0059116659888374,-0.0142088596125546,0.0237112669686441
0.0058692728466036,-0.0144385164722504,0.0234638812026123
0.005608757295032,-0.0143525954526051,0.0236656113335794
0.0046779546389443,-0.0146724045901292,0.0234245325019689
0.0049483180277493,-0.014802687464696,0.0232638596706998
0.0049898958375933,-0.0145840293448122,0.0235214438925779
0.0080730798875101,-0.0146218816580546,0.0208639750294984
0.0085622574531093,-0.0146732837123586,0.0197718119917775
0.0089614312194891,-0.0145120290696201,0.0189753134472137
0.0089256755513566,-0.0143656397003759,0.0192800292093607
0.008785897764592,-0.0146722958582904,0.0192202423529248
0.0087490610758577,-0.014523032640631,0.0195265366751094
0.008364814073994,-0.0148159937968394,0.0200146965093935
0.0084032870067291,-0.0149726862771031,0.0197061283805093
0.0083253616137478,-0.0146567116580346,0.0203198348482361
0.0081149890708867,-0.0147882216842381,0.0205598374772809
0.0071708239604906,-0.0149532788527873,0.0217828835339431
0.0078925276200194,-0.0149097987517151,0.0207957038102649
0.0076145183850479,-0.0148388518178772,0.0213392751384401
0.0078493385119957,-0.0147405211199956,0.0210991698741562
0.0076553794125806,-0.0150195254231628,0.0210311934253423
0.0081968930351151,-0.0151086221299588,0.0199453012077858
0.0085999420374596,-0.0148263893224769,0.0194638206259771
0.0088218569442394,-0.0148180252586048,0.0189119472951428
0.0089965480075036,-0.0146544515104198,0.0186686482668576
0.0058267152424111,-0.0146640856518757,0.0232135226558495
0.0053008122103286,-0.0144776784450779,0.0236022122881168
0.0055664379703407,-0.0145784098157598,0.0234146069623441
0.0063686576997374,-0.0145687614948444,0.023022783490783
0.0069821364649831,-0.0149141541733231,0.0220483488960247
0.0067229721953438,-0.0151123942347469,0.0220451169137911
0.0069407414109812,-0.0151392829466563,0.0217930952464911
0.0066583421046901,-0.0153407784629205,0.0217962605300437
0.0065065589306207,-0.0150724639272886,0.022284030766526
0.0063256841141812,-0.0147939128802345,0.0227745046864231
0.0060801966245322,-0.0147355611466974,0.0229998292148714
0.0060375065144022,-0.014956634439915,0.0227476168907306
0.0052588067243787,-0.0146996787102291,0.0233478062298924
0.0055241463829464,-0.0148001265439747,0.023160653940282
0.0057842164241339,-0.0148854920694863,0.0229603017081142
0.0054824640751018,-0.0150177301000891,0.0229037662669503
0.0057423152231816,-0.0151025296320384,0.022704461558704
0.0052171752226479,-0.014917886013366,0.0230903116718742
0.0062828075792557,-0.0150146598200537,0.0225236126657397
0.0059872334805843,-0.0151761130541055,0.0224935761906906
0.0062266935016336,-0.0152408850466979,0.0222661734493016
0.0073881837838978,-0.0149204874564668,0.0215510075273907
0.0074068286786942,-0.0151159566269064,0.0212598198803799
0.0071314146604911,-0.015201100789334,0.0214945136473565
0.0071991979406741,-0.0153676178873743,0.0211794862279933
0.0069915117592474,-0.0156219113805115,0.0210615492721057
0.0072480842772878,-0.0155415074192155,0.0208673074652365
0.00686820713163,-0.0153420069896961,0.0215918445150573
0.0069478010622217,-0.0154569053725386,0.0213467377052734
0.0067382649755138,-0.0156850110370637,0.0212371914735089
0.0054413859758559,-0.0152314011984415,0.0226440025543254
0.005701445777749,-0.0153154037398583,0.0224458662836076
0.0049071075972652,-0.0150177308458831,0.0230033418440715
0.0046367938611291,-0.0148879586640288,0.0231641445667445
0.0043666357613342,-0.0147437104138408,0.0233126825087932
0.0040573194731927,-0.0147988795064104,0.023186990591863
0.0043259667083807,-0.0149563477501891,0.0230496864247951
0.0074581916421806,-0.0152849257822204,0.020951495824153
0.0079350616344973,-0.015075737941066,0.0204890850265639
0.008156031512778,-0.0149505144851878,0.0202540391312985
0.0077026074241846,-0.0151873666072047,0.0207218505384989
0.0077469651691037,-0.0153529935949667,0.0204108141965289
0.0086369939175539,-0.0149750218332789,0.0191543926970014
0.009031082157396,-0.014792683930074,0.0183600076037884
0.0088571876176702,-0.0149597611256141,0.0186015087307837
0.0088919572064889,-0.0150972941908453,0.0182889000895497
0.0075003527295002,-0.0154568393803505,0.0206426188027676
0.0075450410990721,-0.0156249572385092,0.0203257906981829
0.0067766151680419,-0.0158513375993809,0.0209549833926545
0.0072854294730585,-0.0157162611789862,0.0205590475231219
0.0070317511815607,-0.0157916365389861,0.0207646236671221
0.0082352755616959,-0.0152650864620851,0.0196343770404502
0.0084416713671855,-0.0151248090219589,0.0193948421230986
0.008273291387146,-0.0154179343550856,0.019319702478469
0.0080566347268533,-0.0155524722218925,0.0195537716222726
0.0079770830737795,-0.0152361336619435,0.0201820680268346
0.0080160884960928,-0.0153976549434356,0.0198693423360248
0.0077858559781366,-0.0155177021977887,0.0201005178555923
0.0087087683636147,-0.0152613189348667,0.0185282767892208
0.0078264380063351,-0.015676429429851,0.0197864823108564
0.0078674232984027,-0.015830435308926,0.0194687463876731
0.0086731686357076,-0.0151202132708232,0.0188425171758881
0.008478703720603,-0.0152732725355608,0.0190822801476669
0.0085152274375763,-0.0154178942800717,0.0187666932130351
0.0089263237687954,-0.0152302984059352,0.0179740809389649
0.0087439061917299,-0.01539815350149,0.0182115501129376
0.0087786950309311,-0.0155304088315403,0.0178924833152747
0.0086230925708574,-0.0158245962529896,0.0178039988466461
0.0088132948428753,-0.0156578471648998,0.0175710039028334
0.0091318669425161,-0.0151799609333464,0.0174220655981905
0.0089603400662028,-0.0153586275643635,0.0176570601107994
0.008994112810169,-0.015482026908865,0.0173378735243046
0.009065095069565,-0.014926501158825,0.0180493693717339
0.009098663585679,-0.015055672144744,0.0177367223136327
0.0065507211037778,-0.0158842499592456,0.0211208759452034
0.006526775219411,-0.0157499784023367,0.0213375681639947
0.0065498457195173,-0.0160708435215985,0.0208421520731177
0.0062893427207232,-0.0160875548075586,0.0210317764708886
0.0063173727740988,-0.0158835873577335,0.0213123595162307
0.0045961761170357,-0.0151000647226224,0.0229009359640807
0.0054010410351533,-0.0154411831943129,0.0223815738493043
0.0051353331586597,-0.0153429190329956,0.0225668423817214
0.004866473083062,-0.0152291193015935,0.0227400605811591
0.0045562465212808,-0.0153086859546643,0.0226349803468802
0.0051759552252508,-0.0151322809077491,0.022829953256399
0.0050953979177942,-0.0155497933558452,0.0223011677080996
0.0056582842027157,-0.0155259738397341,0.0221835953056795
0.00666677157901,-0.0155391807583592,0.0215132447195693
0.0064210622369473,-0.015505334870666,0.0217694365145204
0.0064484684729401,-0.0152988478876963,0.0220296115513835
0.0063739987576516,-0.0156968151599841,0.0215377193027834
0.0060989400792904,-0.0158577106141087,0.0215002296314083
0.0061472538522601,-0.0156547045423329,0.0217564342536537
0.0058592386047145,-0.0158036696713492,0.021712332214992
0.0059495845218083,-0.01538785251922,0.022235045536161
0.0059089701596372,-0.0155971622424021,0.0219735737192265
0.0061918791992928,-0.0154475263643059,0.0220123890506864
0.0060521265840861,-0.0160517889988993,0.0212471848130203
0.0062965306408656,-0.016277518901237,0.0207360281231158
0.0060416796070513,-0.016240773528342,0.0209703109010937
0.0056142179259847,-0.0157353755055422,0.0219152168578771
0.0053613510301923,-0.0156473182315751,0.0221163916649823
0.0053224467211119,-0.0158494329267689,0.021848754497735
0.0048266197172645,-0.0154367884715216,0.0224741987655376
0.0045173446950104,-0.0155137250021739,0.0223664000830859
0.0040172039662396,-0.0150086919070291,0.0229215302388261
0.0037510777332885,-0.0148388851450131,0.0230486471672865
0.0037114342698846,-0.015045973315573,0.0227808741288851
0.0034486871313437,-0.0148647810187783,0.0228989230059227
0.004285972616386,-0.0151656532728327,0.0227839809268427
0.0073328128924354,-0.0158860864845444,0.0202344526522199
0.0070625010053362,-0.0159695596062125,0.0204570541055433
0.0075853094955231,-0.0157897778890023,0.020010487085732
0.0068004167557838,-0.0160347483402713,0.0206530956237489
0.0065453329334337,-0.0162728547280735,0.020533513697936
0.0073750033604112,-0.0160500527540131,0.0199153453434535
0.0071105778140931,-0.0161391301484309,0.0201306862460254
0.007150877130758,-0.0163037466388971,0.0198107548077687
0.0068274592216326,-0.0162146972476171,0.020343086675942
0.008095935647916,-0.0157030898275467,0.0192367972388351
0.0083118873566532,-0.0155645406177976,0.0190031897416319
0.0085510374823306,-0.0155586063941725,0.018448542767734
0.0076285240517179,-0.0159465351574727,0.0196927255421962
0.0085874367543345,-0.0156935352572414,0.0181276025945156
0.0083847635166815,-0.015848238622919,0.0183630725725028
0.0079047290904472,-0.0159842575341691,0.0191471469769336
0.0081326947490487,-0.0158519262435018,0.0189170876474268
0.0076659344076173,-0.016104004348878,0.019372451306805
0.0079431114955413,-0.0161313763096709,0.0188234122066153
0.0081696914156671,-0.0159953152165213,0.0185948394720853
0.0083474116498518,-0.0157098397107143,0.0186849790465731
0.0090277889163324,-0.0156002074866458,0.0170165070252506
0.0088477890244249,-0.0157803122367663,0.017247115137114
0.0088819842592404,-0.0158977448153682,0.0169215295191792
0.0084203472936034,-0.0159839145116357,0.018038691784607
0.0082431806995903,-0.0162698064674633,0.0179377354651834
0.0080177024098694,-0.0164135572895597,0.0181654571541875
0.0080549784276807,-0.0165467107598788,0.0178323816117166
0.0082061458468709,-0.0161354172001208,0.0182678233872498
0.0086579366831924,-0.0159515965892216,0.0174782504721391
0.0086939438242539,-0.0160716318885458,0.0171503111960071
0.0087279281971631,-0.0161890907839876,0.016821022713534
0.008456829494451,-0.0161137449402479,0.0177108809735069
0.0091647835160442,-0.0152991172033755,0.0171053987204151
0.0091974867635991,-0.0154129872273739,0.0167867713468516
0.0084925712666898,-0.0162389697849398,0.0173815075953279
0.0057892992829116,-0.0161887975877698,0.0211890315053432
0.0057644981141987,-0.016380207514939,0.0209105340542415
0.0058215327098705,-0.0160027366129753,0.0214468640784726
0.0055406780983832,-0.0161268008228319,0.0213862469627324
0.0055750543948131,-0.0159345571757941,0.0216508403002163
0.0062489241809328,-0.0164910618503134,0.0204344926581898
0.0060206551691375,-0.0164201640225402,0.0207057604051204
0.0059386733980326,-0.0165873554782403,0.0204890697405119
0.0042087657125591,-0.015574230307489,0.0222441582733772
0.0044796519252099,-0.0157152537501638,0.0220950424027237
0.0041714632336553,-0.0157731723939783,0.0219701395885879
0.0042469116291103,-0.0153716599566202,0.0225154614838624
0.0047878466595408,-0.0156408195467047,0.0222057117244161
0.00505656514942,-0.0157528198198651,0.0220330722601262
0.0047504553254014,-0.0158411922439698,0.0219345772227806
0.0052849088794547,-0.0160471150357008,0.0215787856026812
0.0050193288004503,-0.0159517984686906,0.0217625130181808
0.0049817176422433,-0.0161471200153238,0.0214887669721941
0.0044428497209595,-0.0159131669892488,0.0218208364820102
0.0047143148865982,-0.0160377804911485,0.021660609529579
0.004407313792341,-0.0161070520788419,0.0215439875172203
0.0046792706828694,-0.0162302977336134,0.0213837329744082
0.0055047530573136,-0.0163165390170341,0.0211170733885127
0.0052469351526168,-0.0162409536952787,0.0213056844213115
0.0057306546221863,-0.0165566783441204,0.0206501029189476
0.004947201988061,-0.0163372832546521,0.021213138028058
0.0052134964145329,-0.0164282516663719,0.0210318895666914
0.0054766672771234,-0.0165031320491813,0.0208403251157039
0.0054534402487139,-0.0166767890534461,0.0205725546369137
0.0051831522755154,-0.0166128970082029,0.0207515281677236
0.0051591506605617,-0.0167946152750433,0.020463897717483
0.0043735318252633,-0.0162966725427104,0.0212644619381604
0.0039392915576308,-0.0154188108045606,0.0223824116534332
0.0039778164838226,-0.0152153757121259,0.022653341045367
0.0036725631267165,-0.0152500887587684,0.0225104209057291
0.0031507091782114,-0.0148776481464126,0.0227389985402178
0.0034094598105846,-0.0150692785100338,0.0226289727082367
0.0028575561737981,-0.0148784919982201,0.022569895649214
0.0031118868426617,-0.0150796965868973,0.0224670124658957
0.00337107954792,-0.0152709405449901,0.0223564134458692
0.0039016880688541,-0.0156187519605011,0.0221088437081832
0.0036346043203683,-0.015451004796589,0.0222373296933362
0.0041356419289705,-0.0159683770203495,0.0216934625019742
0.0038655060286481,-0.0158152314001984,0.0218324919452988
0.0038306809381869,-0.0160081170342146,0.0215532119978777
0.003597836632749,-0.0156486590616163,0.0219614571635255
0.0028191903031032,-0.0150781471759999,0.0222960552529903
0.0033336984918083,-0.0154695534135197,0.0220811842959269
0.0030739724113701,-0.0152789864967214,0.0221925323466237
0.0030372372297924,-0.0154752700358797,0.021915487092076
0.0054707343087636,-0.0168627587064352,0.0202599772902875
0.0057372627167198,-0.0167190654226674,0.0203837674856703
0.0060276665812407,-0.0167035247842634,0.0202430395808655
0.0077046417903785,-0.0162552408409939,0.019049105933897
0.0079800287261157,-0.0162751351680542,0.0184965507671972
0.0077425068027465,-0.0164027358398008,0.0187218419892683
0.0074935780235482,-0.0165172635206986,0.0189429330382234
0.0074561956790846,-0.0163655507271556,0.0192686567079798
0.0074157513771505,-0.0162111615848281,0.0195919055787118
0.0071942916669168,-0.016461969791195,0.0194857949910733
0.0065762547940921,-0.0164412886904012,0.0202347455196043
0.0068821196143998,-0.0163825287611663,0.0200108059341088
0.0069215875603195,-0.0165451571524682,0.019692337241249
0.006962487081532,-0.0167040792098611,0.0193665044522441
0.0072335684887751,-0.0166184193231194,0.0191574183974903
0.007002266337927,-0.0168584173345968,0.0190375006856848
0.0072709268541583,-0.0167704138119686,0.0188270482737166
0.0066781829606665,-0.0167718563081871,0.0195734882559504
0.0067199082063457,-0.016931699832095,0.0192420341206256
0.0064249257549734,-0.016985784402348,0.0194426006568129
0.0070388309756189,-0.0170096665910787,0.0187050980899384
0.0067587815901973,-0.0170866957984462,0.0189090254464383
0.0075311118385701,-0.0166652198918361,0.0186111437062205
0.0077803310061863,-0.0165455655942174,0.0183905203428171
0.007570013383885,-0.0168067753250836,0.018275692001219
0.0078184787105755,-0.0166829795139229,0.0180556939545981
0.0078551944486635,-0.0168163446615881,0.0177181525614018
0.0080914754545641,-0.0166752167344481,0.0174970803705781
0.0092300474390103,-0.0155214851652399,0.0164662603716301
0.0090611562432625,-0.015713458631353,0.0166932093465455
0.0092625344677002,-0.0156245748977607,0.0161439616289825
0.0090948921399333,-0.0158207504201655,0.0163679093520517
0.0091287978163732,-0.0159224454650823,0.0160408322634085
0.0089165554119767,-0.0160098566612104,0.01659286444322
0.0085277074208222,-0.0163606575613861,0.0170482142422291
0.0089512558790959,-0.0161163071801575,0.0162627677278885
0.0087628062802935,-0.016301182408621,0.0164874426104968
0.0085638558003933,-0.0164754077479241,0.0167134635960758
0.0087995283206017,-0.016405461422326,0.0161517586724539
0.0082794006870522,-0.016399613609433,0.0176057367049862
0.0092950166847003,-0.0157222230286637,0.0158199722919037
0.0091626179409741,-0.0160190643295683,0.0157121096406285
0.0089862228399165,-0.0162169455066513,0.0159313895933697
0.0093275850594653,-0.0158143711778113,0.0154943824584256
0.0091966922095433,-0.0161101549421704,0.0153817348928153
0.0093603637914942,-0.0159009329079821,0.0151672836098212
0.0092308803069029,-0.0161960890784574,0.0150498063254865
0.0090578797414484,-0.0164004508717798,0.0152634278761478
0.009393472044773,-0.0159818288688503,0.0148387735402275
0.0025696740946159,-0.0148679237561691,0.0223922776588342
0.0083164232293876,-0.0165234653330401,0.0172707088680702
0.0083520612871353,-0.0166430616861376,0.016934779579152
0.0083880502535771,-0.0167582194327831,0.0165940656752807
0.0063890702098092,-0.0168202399473937,0.0197685945962506
0.0061323592542193,-0.0170196358884988,0.0196246459566833
0.0066380241814961,-0.016607226121632,0.0198986986786107
0.0063312188975669,-0.0166536146854588,0.0201021639013693
0.0060784068605766,-0.0168561098726434,0.0199506303010557
0.0041015144108683,-0.0161596837594597,0.0214140120823056
0.0046456061482525,-0.0164183005492399,0.0211040983283984
0.0048852085467032,-0.0167048576447076,0.02065079400166
0.00491402794535,-0.0165228288187436,0.0209346320954612
0.0055882740199305,-0.0169911139002624,0.0199935644458791
0.0053423316646867,-0.0170417564779424,0.0199979222323494
0.0055368140283195,-0.0171007151939302,0.0198232435713128
0.005340680887225,-0.017194439271927,0.0197281058114732
0.0051243597371378,-0.0169580864995945,0.0201982923223947
0.0050827480341743,-0.0171242758723096,0.0199190584496784
0.0046140897992318,-0.0166014464622985,0.0208217794636485
0.0045837619578674,-0.016780020959522,0.0205359506086522
0.0043417253932774,-0.0164819750926369,0.020981940920983
0.0043114494020625,-0.0166628729738087,0.0206960331980257
0.004282196322207,-0.0168390323966512,0.0204067929098511
0.0048290188049265,-0.0170499610268977,0.0200813739195573
0.0048571256377471,-0.0168807101562182,0.0203660574481704
0.004554756293534,-0.0169545675097139,0.0202455834240068
0.0035279791250517,-0.0160331997494888,0.0214012545232916
0.0037970476482417,-0.0161970681522605,0.0212709959009154
0.0040688102268136,-0.016346991430837,0.0211314247286508
0.0040373139425526,-0.0165299241518809,0.0208457326254393
0.0037648676372418,-0.016381719452409,0.020986007366377
0.0040072805431172,-0.0167080442986273,0.02055721658603
0.0037345709338756,-0.0165618063207687,0.0206983590348546
0.0037064368821368,-0.0167370838189123,0.0204081103233312
0.0022875380291231,-0.0148463361329286,0.0222066165415361
0.0025318231790485,-0.0150652035122567,0.022116583078257
0.0032974760358833,-0.0156648448657838,0.0218032752862197
0.0030019034261686,-0.0156683162956614,0.0216357275406444
0.003562260743301,-0.0158428315405662,0.0216827338543991
0.0027818713697377,-0.0152751283753933,0.0220197256903537
0.0027458261629654,-0.0154691189990962,0.0217408070608529
0.0032627597397571,-0.0158565727251638,0.0215227222003359
0.0029681386409211,-0.015857752445471,0.0213532510003394
0.0032297221626284,-0.0160445452037571,0.02123940277152
0.0024599035503493,-0.0154514522506208,0.0215577032441657
0.0027113271362265,-0.0156597969477989,0.0214592136843019
0.0024265082142157,-0.0156397889203229,0.0212742875776215
0.0026787120404858,-0.0158468208172205,0.0211749343018961
0.0021800597418213,-0.0154228044230609,0.0213665921616661
0.0024951252469935,-0.0152598416128418,0.0218384003753278
0.002250260093429,-0.0150412352095771,0.0219291123524805
0.0022143601091119,-0.0152335440624987,0.0216491351602415
0.0019398959965389,-0.0151966585504995,0.0214522834883807
0.0019749622512622,-0.0150067302471116,0.0217340327713722
0.0076079683699173,-0.0169439984859259,0.0179365424713565
0.0076457190823221,-0.0170758388680858,0.0175944633498681
0.0078920650147841,-0.0169449039804224,0.0173762040207122
0.0081275691636173,-0.0167997971951274,0.0171572762578562
0.0079301121257694,-0.0170665329235339,0.0170321573041721
0.0081654736828552,-0.0169173402825015,0.0168143035781013
0.0082016790028975,-0.0170309483839499,0.0164701648433853
0.0057883261271091,-0.0168670150156348,0.0201097823732726
0.0061674991852713,-0.0171805271050968,0.0193037893244603
0.0058143254244111,-0.0170327880379293,0.0198080194837456
0.005877849476943,-0.0171879857417917,0.0194910850768109
0.005893401647839,-0.0173568410252691,0.019164294079233
0.0056273965891306,-0.01735512705661,0.0193162371061603
0.0064681047905146,-0.0171445795231188,0.0191084368286284
0.006506341178829,-0.0172997280386416,0.018771584137661
0.0073484542252183,-0.0170571635024569,0.0181539572572042
0.0073101255426388,-0.0169157974948117,0.0184929166499389
0.0062079652618245,-0.0173418706391934,0.0189638118630607
0.0067957680096558,-0.0172378988052669,0.0185713191592392
0.0065458979558823,-0.0174486331989252,0.0184307837616597
0.0068370964268044,-0.0173816446733493,0.0182283086845396
0.0070778314415649,-0.0171560529042355,0.0183646705017024
0.007386783530572,-0.0171934135295138,0.0178108162066561
0.0071175723473786,-0.0172961747711259,0.0180209302194447
0.0071536222087956,-0.0174332241960166,0.0176737726440204
0.0085985827655667,-0.0165866028667374,0.0163773950042121
0.0086373739148809,-0.0166885073233828,0.0160365237915233
0.0088375221338428,-0.0165025627414337,0.0158146713181887
0.0086751669142609,-0.0167869686094191,0.0156931334385034
0.0088728056845672,-0.0165968698114262,0.0154801361506804
0.0090212868871027,-0.0163125788292453,0.0155978744416726
0.0084253197312627,-0.016866404734199,0.0162516791250471
0.0082392449845089,-0.0171373640804598,0.0161249835494061
0.0084648534975435,-0.0169669925060934,0.0159066076266141
0.0082798168018665,-0.0172374098667701,0.0157727080505398
0.0085015790448686,-0.0170658129191987,0.0155600106060709
0.0087121520286491,-0.0168804941953222,0.0153504623934633
0.0085402422230079,-0.0171570792987654,0.0152122481002222
0.0087492064454018,-0.0169686723645897,0.0150072040266589
0.0089083760073701,-0.0166878029776898,0.015139609142569
0.0089453680469368,-0.0167725825597793,0.0147956134403535
0.0090942259616466,-0.0164846306514549,0.0149256826975812
0.0094270289832874,-0.0160569797100902,0.0145089500437816
0.0092661439686672,-0.0162753201388719,0.0147162717880802
0.0094611537696102,-0.0161263060830522,0.0141779109149445
0.0093016907442399,-0.0163493098807505,0.0143814240197267
0.0094958651278537,-0.0161898490228437,0.013845772266928
0.0093377964016924,-0.0164176093797149,0.0140454924590656
0.0095310462097636,-0.0162478153864529,0.0135126626543908
0.0093748009459258,-0.0164796114250459,0.0137086175329716
0.0094119751415858,-0.0165366527515159,0.0133710267633538
0.0020115729026394,-0.0148141357480366,0.0220133705141114
0.001742260006951,-0.0147716199918287,0.0218128701814134
0.0079677130809989,-0.0171833859570779,0.0166851103769564
0.0083164143276234,-0.0173350796628912,0.0154226776390184
0.0042540400630564,-0.0170100558080167,0.020114793415362
0.0039791340755694,-0.0168810580842676,0.0202661441054347
0.0056157910453188,-0.0172030779196482,0.0196042535020907
0.0050685654741025,-0.0172904701714454,0.0196230937070947
0.005348001957233,-0.0173358463944524,0.0194664254003596
0.0050593610188164,-0.0174397183991964,0.0193460191994523
0.0047951664217989,-0.0172133856913441,0.0197959141082339
0.0045234540239891,-0.0171224666930375,0.0199548073057979
0.0042275681214944,-0.0171756162416643,0.0198206763770149
0.003953375749099,-0.0170488451632474,0.0199728254304079
0.0039306075853277,-0.0172113344114131,0.0196775488601991
0.0047734969365845,-0.0173753879962843,0.0195005302279076
0.0047616184393102,-0.0175181896015444,0.0192292166017308
0.0050408909336565,-0.0175886639074427,0.0190601087496239
0.0045036843785197,-0.0172867610048981,0.0196593146597049
0.0044804798522546,-0.0174372807473605,0.0193769364119607
0.0044657557742873,-0.0175712271605725,0.0191161266690094
0.0041925888361629,-0.0174797957490938,0.0192492323911047
0.0042099045407048,-0.0173346678692727,0.0195278731468519
0.0034648178768897,-0.016401584191629,0.0208302599345409
0.0034954291550571,-0.0162195108532611,0.0211171277787748
0.0031695020374528,-0.0164080681862472,0.0206645684422762
0.0034364012106133,-0.0165791154459329,0.0205407741098049
0.0031429187115238,-0.0165831301638369,0.0203731320171181
0.0034104090670333,-0.0167519197646393,0.0202486089586328
0.0029362154923865,-0.0160433007104758,0.0210680249250746
0.0031985130830143,-0.0162284742471676,0.0209533066902658
0.0029065431113516,-0.0162247372471637,0.0207801134552044
0.0028793073943356,-0.0164018530492918,0.0204894509539322
0.0036581161684206,-0.0170726397251306,0.0198202853705549
0.0036808199544681,-0.0169073891793143,0.020115347999168
0.0033872846067598,-0.0169198187895113,0.0199539200363586
0.0033669286363438,-0.0170828376219606,0.0196564528870732
0.0026201648640968,-0.0162088972093571,0.0205979699379529
0.0031190651914098,-0.016753494723736,0.0200789582250391
0.0028545109912535,-0.0165744044904097,0.0201959163825261
0.0025944740074062,-0.0163833479088968,0.0203053198052343
0.0019067097780738,-0.0153835154054529,0.021167949108058
0.0021478172892194,-0.0156087235496463,0.0210813677200939
0.0026482673352006,-0.0160299451782514,0.0208878569029079
0.0023951554635738,-0.015824391958358,0.0209881407439869
0.0021178360456436,-0.0157907771916537,0.0207934652146083
0.001672612267896,-0.0151491674182069,0.0212480513569896
0.0016411091084458,-0.0153334455226629,0.0209619407286189
0.0017065313350382,-0.0149617975821479,0.0215316603334401
0.0014807432579437,-0.0147183605803816,0.0216047697001551
0.0074233586073,-0.0173257754262568,0.0174637970012931
0.0076825135615836,-0.0172029894205547,0.0172494961961198
0.0077208188099377,-0.0173240619645027,0.0168998569552245
0.0080435340755553,-0.0173991200507679,0.0159872919120406
0.00800640202985,-0.0172927970817013,0.0163380285088555
0.0071942846370813,-0.0175617245086662,0.017322310505103
0.006913050324246,-0.0176566011838079,0.0175302639042133
0.0074632009260541,-0.017450183665331,0.0171129474504211
0.0077594902421614,-0.0174383301244727,0.0165497968115788
0.0072303102762934,-0.0176884485031514,0.0169659041643696
0.00750170726194,-0.0175693143825391,0.0167607674374482
0.0053326004154506,-0.0175024961292805,0.0191539653939198
0.0052874761489855,-0.0176708695941084,0.0188333193773855
0.005607419488704,-0.0175298929484965,0.0189875348300616
0.006874424976395,-0.0175225591368639,0.0178807399487656
0.0065846701573648,-0.0175938130824118,0.0180828115129714
0.006285970879369,-0.017647452253036,0.0182734002395558
0.0063245860356964,-0.0177901521524028,0.0179252676023022
0.0066220324654062,-0.0177334828450366,0.0177318882266139
0.0069521033567033,-0.017785878299991,0.0171732124516373
0.0069936345214351,-0.0179059763490935,0.0168170495188924
0.0066610281580178,-0.0178671552869077,0.0173754636466401
0.0062428301248349,-0.0174990824853129,0.0186212000077761
0.0056417133141039,-0.0176864585665955,0.018653067578448
0.0059240734090245,-0.0175256776332696,0.0188127584898967
0.0059745722227353,-0.0176796654818543,0.0184607989832255
0.0060224744826774,-0.0178253998760849,0.0181106519180163
0.0060541116297495,-0.0179689387590122,0.0177604460368314
0.0063593031383525,-0.017930273874984,0.0175694653470157
0.0072744392008147,-0.0178025249929005,0.0166091547179155
0.0092054385393665,-0.0167045617795905,0.0139063108067834
0.0091297238510156,-0.0165651743331926,0.0145871727705715
0.0091685654458341,-0.0166356738422193,0.0142469320106324
0.0089872961756681,-0.0168449246224203,0.0144507799377611
0.0080823852328026,-0.0174994210909514,0.0156322246039402
0.007836473725655,-0.0176517266817784,0.0158407149619078
0.0083573280226025,-0.0174237843265203,0.0150689710832913
0.0081221982447057,-0.017592647561116,0.0152779201393957
0.0087885724637111,-0.0170493018106507,0.0146616417583001
0.0088298419353888,-0.0171243615345058,0.0143101429262696
0.0085785112673039,-0.0172442593529804,0.014862152703945
0.0083978201146628,-0.017506965306886,0.014716824402838
0.0086218889115089,-0.0173203670943201,0.0145107724753091
0.0086612454269134,-0.0173968335276532,0.0141578320401579
0.0092442192216213,-0.0167653890297229,0.0135655543858705
0.0090649823348265,-0.016982292253601,0.013764913885974
0.0091036835952146,-0.0170454189742177,0.0134178434772756
0.0094500406561021,-0.0165874278989925,0.0130327659786272
0.009283767350232,-0.0168208506635929,0.0132227369253427
0.0094881251105533,-0.0166335919402613,0.0126940012029601
0.0093237543517337,-0.0168704741110026,0.0128809968951252
0.0095666111986524,-0.0163003736043237,0.0131786980840828
0.0096385513314655,-0.0163900483377655,0.0125086247991153
0.0096024750289085,-0.0163477047479328,0.0128439847972815
0.0093639043059126,-0.0169154622731514,0.0125384352184803
0.0096747534440858,-0.0164276645659807,0.012172717052909
0.0095263994266434,-0.0166748314280905,0.0123548864296205
0.0095644295002019,-0.0167120521547168,0.0120154352598766
0.0089105588052892,-0.017261285063229,0.0136084084561933
0.0089540618188678,-0.0173170787771637,0.0132606600703619
0.0087474497736995,-0.0175257854853352,0.0134515311709538
0.0087030192773659,-0.017465714807789,0.0138037409759489
0.008527345608968,-0.0177228117311926,0.0136431580929631
0.00902308323001,-0.0169200971865225,0.0141094993962863
0.0088689623611774,-0.0171956121523984,0.0139632099099795
0.0013845700173097,-0.0152720748036649,0.0207477199476387
0.0016124332112444,-0.0155142483908839,0.0206731807359827
0.0018759435346854,-0.0155668908347193,0.0208810653826606
0.0018481066736479,-0.0157464155617553,0.0205916350560438
0.0014141195525888,-0.0150905806275424,0.0210359636026683
0.0014463241361065,-0.0149058842909477,0.0213215885535526
0.0012285764355986,-0.0146536466249182,0.021388546102739
0.0011958941116243,-0.014838321083375,0.0211032452202052
0.0011657022462795,-0.0150200425910788,0.0208154063943197
0.0084392019253275,-0.0175869636885577,0.0143560559384079
0.008204286525465,-0.0177642502995473,0.0145575385529095
0.0081637941532679,-0.0176801906224356,0.0149189783457485
0.0078735357158927,-0.0177520858582594,0.0154820243742387
0.0075420198887037,-0.0176815986237274,0.0164054033832461
0.007313659662582,-0.0179142960935709,0.0162497978852218
0.007799117521236,-0.0175471525613132,0.0161952343552792
0.0076181488604561,-0.0178928009762964,0.0156884250298386
0.0075809232673301,-0.0177893765922836,0.0160477615375856
0.0073525254027171,-0.0180202192622323,0.0158890831128353
0.0079574759254934,-0.0179296283635659,0.0147562188730035
0.0076568513146906,-0.0179899279179377,0.0153262996494795
0.0060747153211048,-0.018111106111452,0.01740445387038
0.00496401965393,-0.0177056396433522,0.0188369682937607
0.0056951738173383,-0.0178385498418238,0.0183009845746063
0.0053762376350991,-0.0178231624688216,0.018484544171452
0.0050677910616811,-0.0178174971505982,0.0185857300804956
0.0047355286248007,-0.0177922678781939,0.0186766757262741
0.0047683155865711,-0.0179299225152185,0.0183794732114817
0.0047371192110221,-0.0176452138716436,0.0189791121552954
0.0039138022292427,-0.0173678983533816,0.0193824645821347
0.0036376402374803,-0.0172331112417046,0.0195219892887081
0.0033486245867194,-0.0172408218513566,0.019355880149321
0.0036209158913056,-0.0173887012279074,0.0192210890505593
0.0041774286214916,-0.0176323493671131,0.0189440688604651
0.0044432918425299,-0.0178695423783953,0.0184972232353334
0.0044474248280834,-0.017721397867657,0.0188110094778014
0.0041603858875914,-0.0177792593229354,0.0186354904743748
0.0038985036407173,-0.0175201927329367,0.0190828462125057
0.0038817038907465,-0.0176679271949693,0.0187776365351234
0.0038617391562768,-0.0178141378996788,0.0184589772737328
0.0013583224299118,-0.015449972886031,0.0204570408979119
0.0015869856730093,-0.0156910665253155,0.0203818663872719
0.0023661158916456,-0.0160049697732634,0.0206991676644426
0.0020907371855895,-0.0159687008202423,0.0205030578221921
0.0023396739130533,-0.0161811602963077,0.020407615488965
0.0011154840049366,-0.0153735747515686,0.0202323912708511
0.0009055784884398,-0.0151126210068167,0.0202936253784684
0.0008861513974235,-0.0152847838069642,0.0199992182846846
0.0025714254432626,-0.0165529025756907,0.0200102429326703
0.0033313573425562,-0.0173931639251677,0.0190524997526847
0.0030607628257343,-0.0172333061124727,0.0191804971778453
0.0030976195660406,-0.0169189246064538,0.0197818707578069
0.0030781289044035,-0.0170790392217985,0.0194820564658593
0.0028321210144629,-0.0167419674086462,0.0198996880649056
0.0028122396770936,-0.0169041375689999,0.0196012244591766
0.0027957844099245,-0.0170607547754056,0.0193015141505816
0.0030497145242058,-0.0173820060893577,0.0188798174008456
0.0018235586549581,-0.0159218056480983,0.0202996054131343
0.0015652859028813,-0.0158637037228521,0.0200880933434077
0.0018026437501313,-0.0160928449173677,0.0200051798563748
0.0020669379674209,-0.016142322535313,0.0202102622036668
0.0023163461840394,-0.0163527517060016,0.0201138098337273
0.0013358278003601,-0.0156239805223567,0.020163868947726
0.001096655444256,-0.0155448178881577,0.019937694215037
0.004465664967712,-0.0180358792821803,0.0181291972004101
0.0046244955966352,-0.0181539594948857,0.0178660512932302
0.0043665762060938,-0.0181582748692576,0.0178257932154377
0.0041153907211983,-0.0180587069172848,0.0179993582762849
0.0041407540164464,-0.0179235131498434,0.0183163749364569
0.0040883320038696,-0.0181950366266157,0.0176610577914394
0.0035690094795458,-0.0178239521774715,0.018292015795217
0.0038420360441628,-0.0179529676626061,0.018140013423064
0.0035532564205391,-0.0179562677947386,0.0179791050507114
0.0063985846181728,-0.0180630261606985,0.017208027938874
0.0066967213756856,-0.0179974596152029,0.0170131510346793
0.0061199066256003,-0.0182458703849034,0.0170254473734651
0.0064408334786309,-0.0181873184959094,0.0168452378058989
0.0067448417169926,-0.0181148017009074,0.0166480397276481
0.0070333124369096,-0.0180226542187022,0.0164545333068759
0.0048243502065391,-0.018070754070228,0.0180588622860687
0.0051041770984283,-0.0179627046565424,0.0182623065556788
0.0057688481157888,-0.0181322841929746,0.0175832173032746
0.0057405923967607,-0.0179864992879061,0.0179439080389014
0.0054156190106953,-0.0179757959576248,0.0181341617640579
0.0048634395088844,-0.0181980267531855,0.0177545156111039
0.005131454627385,-0.0181106724589854,0.0179176231517423
0.0067850994271564,-0.0182280633318877,0.0162855797016518
0.007073129014859,-0.018132822038687,0.0160905910129191
0.0068179305882369,-0.0183374524925864,0.0159258586767765
0.0065271483187823,-0.0184143098836241,0.0161159977948011
0.0064852191574219,-0.0183040830763626,0.0164800422833149
0.0061772290943703,-0.0183651765859678,0.0166536671592089
0.0062143349585627,-0.0184783663215574,0.0162981098511266
0.0097832498003629,-0.0165148882460193,0.0111624854001972
0.0097471939218034,-0.0164898301951299,0.0114995798576036
0.0096409374343629,-0.0167720538711822,0.0113360227631878
0.0096027479454846,-0.0167441860116037,0.0116758019029711
0.0097109960183443,-0.0164608337745961,0.0118363434842263
0.0079167540456451,-0.017842266456971,0.015120029914072
0.008001588134963,-0.018009263569644,0.0143902019434203
0.00944421078442,-0.0169915946619095,0.0118530532708433
0.0094040180791219,-0.0169556989924456,0.0121964469495622
0.0092726753672457,-0.017227893868291,0.0120334816948521
0.009229545367983,-0.0171912562345123,0.0123777362414295
0.0093133517644548,-0.0172648187882519,0.0116853759949618
0.0094844185741874,-0.0170225666518777,0.0115102827517646
0.009188183098124,-0.0171461876780357,0.0127249789061737
0.0090393876022563,-0.0174178306294715,0.0125627056645552
0.0089977183631481,-0.0173682098045235,0.0129122456253642
